-21.5821650238 21.9017116140 -0.6552202729
-21.7902190317 21.8479483011 -0.7636623053
-21.6602803348 21.8973322387 -0.6786465763
-21.8324204234 21.9909468633 -0.6552142432
-21.9079411732 22.0028403379 -0.6755840182
-23.1888414075 21.9026090659 -1.6365347184
-23.2922092776 22.2214918464 -1.3584949491
-22.7164966700 21.3211598441 -2.1451636413
-22.8953520334 21.2998802836 -2.3024688092
-22.6877874493 21.5642215323 -1.7013031797
-22.6917962362 21.4801759417 -1.8405390008
-23.1458809181 21.7226931327 -1.8380955994
-22.9870889200 21.4955482586 -2.0619138089
-23.0159538697 21.7053999220 -1.7838340013
-22.9311269351 21.6587826208 -1.7794531897
-22.8481928395 21.5586521447 -1.8576972982
-22.6677293435 21.8987268652 -1.2709742889
-23.1202830155 21.8649845218 -1.6514609813
-23.0734647245 22.0025586692 -1.4936650652
-22.8005719777 21.7823969669 -1.5000457291
-22.8915513716 22.0032283453 -1.3664283820
-22.1020149254 21.7101911012 -1.0522477459
-22.0928617784 21.4503015630 -1.4454092237
-22.0335265016 21.4590456395 -1.3934638553
-21.9923087095 21.2490070344 -1.8596124159
-21.9574764346 21.2542296146 -1.8304568195
-22.5476668749 22.7490762830 -0.5437113156
-22.6305665029 21.7919375246 -1.3485918049
-22.4600544119 21.8068667057 -1.1955051977
-22.2222297818 21.8538177933 -0.9696912896
-22.3720518015 21.8227602812 -1.1086762654
-22.2566555633 21.8922130059 -0.9563405385
-22.4338987580 22.1992033115 -0.8298664599
-22.6465621747 21.5566784767 -1.6763228919
-22.6493292536 21.3948477580 -1.9539643684
-22.5714305815 21.5021318917 -1.6992771129
-22.3657687557 21.7228775916 -1.2154863745
-22.2371207610 21.4875365244 -1.4716731090
-22.6373995239 21.7205392585 -1.4370033873
-22.4857277171 21.4727996616 -1.6804232355
-22.4977698444 21.5648379643 -1.5424347700
-22.1757635488 21.3233533371 -1.7659942713
-22.3155620844 21.5584739373 -1.4123673045
-22.1474622652 21.3516430896 -1.6836291430
-22.3019472210 21.4387198290 -1.6077022940
-22.3869991813 20.5176974050 -4.5287825682
-22.4339448227 20.5283245073 -4.2535056819
-22.3844310515 20.5175368773 -4.5143456102
-22.4400141065 20.5522736513 -4.0725032058
-22.5421703098 20.5922018589 -3.9167869901
-22.1725487660 20.5158197460 -4.4553735190
-22.3626156700 20.5245245607 -4.2677747427
-21.9158673340 20.5971180761 -3.7908328030
-22.2707976094 20.5845319914 -3.8594657774
-22.0227953557 20.5361919210 -4.1469991440
-22.2103781371 20.5716304942 -3.9054533981
-21.9335461543 20.5740035062 -3.8992790188
-23.4809899944 22.4477507675 -1.1461900668
-23.5865996495 22.1289730477 -1.4035802540
-23.3120069715 22.1057247412 -1.4657302661
-23.3307677165 21.8871295636 -1.6862356172
-23.5353036709 22.0450961988 -1.5070194690
-23.4329182071 22.2124087961 -1.3619723252
-23.8291496632 21.2546101949 -2.5995690242
-23.8281467366 21.6104684051 -2.0021407497
-22.8835308686 21.2253466627 -2.4285667710
-23.1491807467 21.4267742656 -2.2546332551
-23.1867772539 21.5895221574 -2.0395124466
-23.0074992645 21.3304868198 -2.3225613995
-23.9850075196 20.7886885676 -4.5471581105
-23.3574124287 20.6161065130 -4.6469052655
-23.5461485711 20.6460729360 -4.7469044242
-23.4954793441 20.6419115237 -4.6217261279
-23.7846100798 20.7260266751 -4.5040556012
-22.8171387515 20.5494432509 -4.4579714838
-22.7413462597 20.5446223109 -4.6834585874
-23.2045252960 20.5970353210 -4.6473691267
-23.2303056427 20.6093531000 -4.4565558165
-22.9156689337 20.5701057860 -4.3183099193
-23.1814900594 20.6128151606 -4.2973924446
-22.9496370111 20.5625463565 -4.5137044753
-23.3179845955 20.6386987221 -4.3151763962
-23.3212081190 20.6180882777 -4.5369277565
-23.7594651568 21.1321942445 -2.8301974664
-22.6856273878 20.5532722979 -4.2174079822
-22.5673607883 20.5292709649 -4.3839187999
-22.5926399961 20.5794806718 -3.9966286599
-23.4445328045 22.7096432102 -0.9693080618
-23.7994113766 22.3994065125 -1.0631030062
-23.6803241910 22.6627137547 -0.9171861008
-23.7924894939 22.2731792020 -1.1739033645
-23.6483565004 22.5810152448 -0.9789814840
-23.5708640085 22.3543225065 -1.1958750860
-24.2174147532 23.1318869064 -0.6191481787
-24.3069554895 22.6719024865 -0.7699500039
-24.1406295979 23.0903609518 -0.6451593108
-24.1896865882 22.3896710846 -0.9769839605
-24.2675111036 22.3376663199 -1.0081258534
-23.9863072596 23.0454103983 -0.6908655228
-24.0103882527 22.6608316541 -0.8237609747
-24.1099389258 22.4323610015 -0.9558659485
-24.0817421268 22.6859179253 -0.7957883387
-23.9498324000 21.4601131822 -2.2291116125
-24.1715288279 21.4831560996 -2.2243547335
-24.0394515497 21.7776405027 -1.7123140893
-24.2658769812 21.8023880091 -1.6460804929
-24.1604630131 21.8413769490 -1.5996643368
-23.9546502437 21.5227744210 -2.1195426949
-24.0585651916 21.6826004342 -1.8486687934
-24.1126539062 21.5938829714 -1.9951091367
-23.9440312253 22.5661147990 -0.8992643125
-23.9169942811 22.4911325913 -0.9565722866
-24.2390456788 22.0161922178 -1.3475636819
-24.1341887208 22.2367932077 -1.1091004259
-23.8423507664 22.0965907590 -1.3386925857
-24.0890743894 22.2819977254 -1.0762814292
-24.0444365468 22.0019629194 -1.3998055447
-23.9978849312 22.2312236611 -1.1415451187
-25.1319302894 23.5454275464 -0.5063972272
-25.3551136894 22.5213419713 -1.0666625574
-24.8711061018 23.4025938861 -0.4789356761
-25.0518223980 23.2855268651 -0.4859183648
-25.2146618446 23.2181710998 -0.4946123416
-25.1584294527 22.0105166030 -1.8553564737
-24.9391948035 22.1267530095 -1.3687973451
-25.0006407079 22.0409590666 -1.5816702457
-25.2850586237 22.3693988756 -1.2466803519
-25.1986856995 22.2708257329 -1.3315342638
-25.0565427922 21.9755919471 -1.7923513561
-25.1712686033 22.1287885952 -1.5845787082
-24.4340647193 22.9305027466 -0.6315290500
-24.4866825052 22.8493094374 -0.6573761677
-24.7275200534 23.4119492123 -0.4799584711
-24.7928523346 23.0048347712 -0.5548180712
-24.6637482698 23.3170266423 -0.4952682385
-24.7523309413 22.4042703178 -0.9411419070
-24.7644314772 22.5993812311 -0.7774453860
-24.7765417628 22.7824765501 -0.6582631688
-24.6496492521 22.7509790403 -0.6870857278
-25.2819991795 22.5972045652 -0.8923119621
-25.2159884792 22.4669082895 -1.0240490416
-24.9367785740 22.3068027586 -1.0930262889
-25.0118334608 22.3630660058 -1.0474488134
-24.9081645017 22.8374760280 -0.6178848743
-25.1190725650 22.5133700084 -0.9076897072
-24.3726559635 21.8573746037 -1.5695319059
-24.2361323130 21.5769651780 -2.0488164315
-24.3468505048 21.5812006016 -2.0854409011
-24.3938831233 22.9026138947 -0.6487824506
-24.3853901482 22.5536154888 -0.8362716095
-24.3649146253 22.7810914835 -0.7074340739
-24.6306557202 22.2546202463 -1.0846189364
-24.6603356131 22.4744659127 -0.8762599635
-24.4146780058 22.0020869162 -1.3656920808
-24.5163011447 22.0326289213 -1.3372398264
-24.4428165363 22.1607965036 -1.1740512048
-24.5849994947 22.2844706729 -1.0488745287
-24.5208175736 22.3335914199 -1.0030074490
-24.9424368343 21.9181783557 -1.7943751913
-24.8911410871 21.9204177722 -1.7357179167
-24.4518284115 21.9741008421 -1.4078662651
-24.4972246421 21.9334628791 -1.4787751846
-24.8065563274 22.0467259127 -1.4227713148
-24.7368800923 21.9708846760 -1.5173140896
-25.3124433106 23.5084925118 -0.5219803728
-25.6085240472 22.7551023977 -1.0387144781
-25.6888880279 22.9387980192 -0.9090970025
-25.5291011070 22.6429973102 -1.0903979144
-25.4516323281 22.7458409198 -0.8484260446
-25.7665411374 22.4310853892 -2.1972995013
-25.8239750178 22.5431132748 -2.0122338954
-25.5985482227 22.2944648972 -2.0530740618
-25.8319838944 22.6426439282 -1.7407256089
-25.7110274019 22.4898710023 -1.7800972622
-25.6593950547 22.3957338800 -1.9055212738
-25.7606515585 22.5176676677 -1.8606370669
-25.4029704306 22.3449478518 -1.4467399256
-25.2846009282 22.1805931610 -1.6258008319
-25.4333330986 22.1418650744 -2.0772149816
-25.3888693108 22.1376484167 -1.9631313577
-25.7283710701 22.8175967689 -1.1440708856
-25.6181978750 22.6039602205 -1.3053777344
-25.5250059789 22.2949904639 -1.8221468154
-25.4366869394 22.4969593086 -1.2073847502
-25.4370282514 22.2540462836 -1.7287912172
-25.4576709255 22.4169378729 -1.3895930996
-25.4869009616 22.3047283451 -1.7043670873
-25.5839511886 22.4642975352 -1.5256867708
-26.3031891515 23.2390382715 -2.8752373162
-26.1604028857 22.9053798193 -2.8971759660
-26.2299163054 23.0521147242 -2.8394099398
-26.3777930351 23.5253120722 -3.0230355348
-26.4151269585 23.7902920091 -3.0526406774
-26.3531311935 23.4796641644 -3.2401026483
-26.3807423003 23.5478919662 -3.0466000350
-26.3655618814 23.6901775863 -3.4782772290
-26.3394559920 23.3535687302 -2.8958672880
-26.3165130195 23.3607937524 -3.3442174895
-26.2970890757 23.2655427513 -3.2567316974
-26.2691414748 23.3284221662 -3.7133114327
-26.2528107184 23.2264661739 -3.6123654314
-25.3377050794 23.9465863285 -0.7119842908
-25.5376446396 24.1505259453 -0.9328343004
-25.5066505695 23.9955128127 -0.7992546014
-25.7419130242 23.0896231636 -0.8286479644
-25.4407538021 23.8766612825 -0.6909119240
-26.0318811050 24.4916315255 -1.4233962297
-25.7194054397 24.6734303128 -1.3009031051
-26.0598588665 23.9253450485 -1.1058842664
-26.1016639700 24.1683449539 -1.3215527672
-25.6976286293 24.5038765055 -1.2137452177
-25.8542060254 24.1049102563 -1.0143477429
-25.7794993701 24.2225001137 -1.0570859293
-25.9866589042 24.0627191159 -1.1076641902
-25.7484199322 24.5599644979 -1.2571801496
-25.9108852467 24.4462416852 -1.2831468534
-25.9560831273 22.6266693083 -2.3764277628
-26.1120963366 22.9861314161 -1.9387504107
-25.9368510403 22.6408687769 -2.1816611475
-25.8613174175 22.9217096799 -1.2535452393
-25.9094534543 23.0218130630 -1.2153876108
-25.9335778879 22.8766425065 -1.5212023077
-25.8803006126 22.8844118002 -1.3610825224
-26.1863141435 23.4623164603 -1.4801745744
-26.1439376482 23.1390513208 -1.7500716696
-26.0744864315 23.2545325795 -1.3377339037
-26.1262387771 23.3576213812 -1.3780713967
-25.9397058888 22.7683261987 -1.7822904580
-26.0435021733 23.1355489922 -1.3984013102
-26.0795951389 22.9940380741 -1.7789126563
-26.0082009673 22.9701219075 -1.5695098466
-25.8261204559 24.0517991619 -0.9560628683
-26.1695645662 23.6931293683 -1.2983562384
-26.1151156176 23.4207935040 -1.2836565781
-26.1460806831 23.6179481876 -1.2551251386
-25.8543577029 23.0806013954 -1.0256791527
-25.9410718206 23.3150347821 -0.9696768643
-25.9025741829 23.2632565919 -0.9388395199
-25.7287564257 26.1787187828 -2.1758084914
-26.0592607374 25.8510350671 -2.3663896323
-26.1225865004 25.8404852665 -2.5397449697
-26.0036935970 25.7857555327 -2.1985071717
-25.9201977823 26.0321322459 -2.2822315744
-25.9115727921 26.0208298790 -2.2633710747
-26.4270924622 24.6359244248 -2.7263806364
-26.4105312614 24.8532491500 -2.9459954668
-26.4210881222 24.7532275407 -2.9351101504
-26.3727308682 24.7545005544 -2.3130814451
-26.4194826060 24.6158053115 -2.5719946114
-26.3568002717 24.9196674737 -2.3703424262
-26.4044590051 24.7910779578 -2.6090081962
-26.3554761017 25.0261222549 -2.5176389959
-26.3918372645 24.9014667411 -2.6463479468
-25.7786786204 25.2256383828 -1.5720077728
-26.0429804335 24.9776967357 -1.6278214015
-25.9139981583 25.1884275653 -1.6343614255
-25.9780953776 25.5429097481 -1.9139916832
-25.9183946926 25.5110209073 -1.8234368711
-26.3033029451 24.8909254102 -2.0901043372
-26.2162932558 24.8682936690 -1.8227577225
-26.2725474097 24.8313997276 -1.9500632723
-25.9509214446 25.3713570094 -1.7590243946
-26.0862138931 25.3592548840 -1.9086939890
-26.2254626559 25.4425110605 -2.4223451847
-26.3457861134 24.8300053033 -2.2233654103
-26.1723027863 25.2963723901 -2.0376780802
-26.3129944515 25.1017610799 -2.3518617845
-26.3140519491 25.0319924441 -2.2685193929
-25.9517515308 25.7635791136 -2.1046870404
-25.9713146067 25.6917285349 -2.0606334058
-26.2593103795 25.2874894957 -2.3454047013
-26.1441222255 25.5977108922 -2.3231909562
-26.1685341743 25.4527425528 -2.2083021610
-26.1216172155 22.9721001851 -2.0316381152
-26.1397922606 22.8844980898 -2.5947856671
-26.0530922090 22.7790958561 -2.3234766420
-26.2205330410 23.5675432620 -1.5287676494
-26.2359236427 23.4244675968 -1.7210965543
-26.2900308590 23.4091218852 -2.0310195063
-26.1700971066 23.1571479761 -1.8302810996
-26.2205737983 23.3198229544 -1.7929908964
-26.3480970172 23.4094579475 -2.5350100546
-26.2459478409 23.0934383371 -2.7205139194
-26.2734315873 23.2029112198 -2.4093267904
-26.2871271752 23.2220367018 -2.5121125845
-26.1914074548 23.1087763972 -2.0525651128
-26.2679895943 23.2064032747 -2.3405826699
-26.1546360356 22.9128677837 -2.5829419035
-26.2142903883 23.1135750795 -2.1905568767
-25.8348527756 24.9870328910 -1.4945763323
-26.0857941594 24.8316560587 -1.6185538747
-26.0659332258 24.7642228422 -1.5727472201
-26.3005998337 24.7501317468 -1.9979055277
-26.3141762615 24.3482776663 -1.8929670604
-26.2289660997 24.7160325397 -1.8005206663
-26.2988044255 24.6033324335 -1.9320501649
-26.2982514238 24.1675231941 -1.7964101114
-26.2476296185 24.0606194847 -1.5956476242
-26.1982621519 24.6917788470 -1.7345997428
-26.2829731807 24.2122318057 -1.7463914194
-26.1668056095 24.3830726834 -1.5616739166
-26.2071481189 24.4983359467 -1.6929184460
-26.4400811716 24.2933431410 -3.0436763671
-26.4025811808 23.6385060578 -2.7467827193
-26.4337109015 23.9729492666 -2.6444900646
-26.4161308247 23.7508287936 -2.9292080465
-26.4305001131 23.8894859641 -2.7190229599
-26.3969912545 24.4347178577 -2.2827995553
-26.4182437684 24.5835532013 -2.5276327951
-26.4299929490 24.2871953203 -2.4961510035
-26.4105299100 24.4459257409 -2.3770880883
-26.4414715478 24.0791132739 -2.8651167598
-26.4387270200 24.1036693884 -2.6202036760
-26.4412222116 24.1129227385 -2.6821812856
-26.2482870848 23.6080706721 -1.6233366182
-26.3144905378 23.8966857075 -1.8973299286
-26.3172631092 23.6470356178 -1.9557202994
-26.3184604012 23.7357522361 -1.9369489185
-26.3951167313 24.4163149785 -2.2647810250
-26.3940742853 24.1794402518 -2.2128367430
-26.3551542900 24.2562326955 -2.0320691589
-26.3831192714 24.1951649664 -2.1586254925
-26.3551923583 23.4262128176 -2.5990283342
-26.3792169935 23.6435381204 -2.3478380667
-26.4080422068 23.7527338080 -2.4980625793
-26.3857000599 23.6310633981 -2.4257667863
-26.3236288818 24.0547112858 -1.9111963657
-26.4117551044 24.0000930701 -2.3426761886
-26.3484192015 23.6010224764 -2.1586655431
-26.3751382270 23.9773316432 -2.1295562811
-25.7662007627 26.2078342587 -2.2217485141
-26.0357127942 26.3530408228 -2.7156430705
-26.0110258832 26.2568447787 -2.5989172619
-26.3765739017 25.0726926143 -2.9404036592
-26.4087966204 24.8311421310 -3.1835010623
-26.3500255218 25.2242811417 -3.0356625391
-25.9936409072 27.7027928759 -3.2535607526
-25.7887063034 26.7722996403 -1.9714106871
-25.8958777045 26.8881440125 -2.1296165607
-26.0757538677 26.6919283246 -2.8556224602
-26.0648948200 26.4530731446 -2.8205249701
-25.6350234367 27.9977708259 -1.1222966591
-25.7900552731 27.7535445758 -1.3122506237
-25.7415621729 28.0061597674 -1.3314024337
-25.6488244121 27.9869580496 -1.1397434076
-25.9919514169 27.6304463135 -2.0959565056
-26.0173398195 27.6773037646 -2.2861775328
-25.8792830271 28.1140573487 -1.8159185284
-25.9553781559 27.8737095987 -1.9339768675
-25.9338909882 28.0280335969 -1.9775439214
-25.9838155122 27.8225347855 -2.1047665314
-25.9739906869 27.9311272701 -2.1494181731
-25.7832544366 26.9979121613 -1.6432274673
-25.5375626624 27.1164113738 -1.0808589197
-25.9679509786 27.4803051360 -2.0100464886
-25.9072374324 27.2588404866 -1.8130680779
-25.9237144680 27.4196576182 -1.8107125358
-25.8671281511 27.2692547199 -1.6092739317
-25.7809845340 27.1474752495 -1.4635265181
-25.8771838945 28.0496295305 -1.7270942732
-25.8542676920 27.7724663469 -1.5197159740
-25.9520400688 27.5142928323 -1.9216259636
-25.9482923233 27.7548352660 -1.8556246619
-25.9372318568 27.5684594153 -1.8229844635
-25.8935101225 27.5008699136 -1.6017820293
-25.8489907452 27.6001366470 -1.4374224830
-25.8542769638 27.0103022081 -1.8465513125
-25.8295794132 26.9361459943 -1.8674977376
-25.9255396575 27.2642715628 -1.9124867853
-25.9197158250 27.1177019759 -1.9919896257
-26.0038654987 27.7613207738 -3.0716492812
-26.0311682098 27.7177195686 -2.8705018660
-26.0454489473 27.6238592630 -2.5988728799
-26.0385051246 27.6212917715 -2.4622116004
-26.0391231040 27.6788739800 -2.6078512621
-26.0051177693 27.4723258553 -2.1779631376
-26.0265340244 27.2513463655 -2.3665034189
-26.0343989888 27.2595841541 -2.4073664667
-25.9651129719 27.7934574724 -3.2851095652
-25.9286228911 27.8026642518 -3.4589401602
-25.8668355380 27.7927812680 -3.7130553572
-25.4720637381 28.2448706370 -1.0319752390
-25.4459017254 28.1542518168 -0.9358383930
-25.4946194671 28.6962087236 -1.6206049972
-25.4485664802 28.5821588755 -1.3393497655
-25.5395224916 28.5768453999 -1.5023266182
-25.7259914000 28.1694821651 -1.4235368564
-25.7614835674 28.1697949526 -1.5107401399
-25.5402579065 28.3218609277 -1.2037978993
-25.5609960762 28.2581731162 -1.1784069834
-25.5989081883 28.3547982372 -1.3379352091
-25.4510278606 28.8526536463 -2.1697482541
-25.4223448936 28.8758006500 -2.0076681187
-25.9474045306 28.0772465537 -2.4693824902
-25.8709962934 28.1794441841 -1.8953389136
-25.9064179792 28.1802664156 -2.2625193726
-25.8295921619 28.3337246694 -2.4547080833
-25.8500715064 28.2964702150 -2.4547234767
-25.4580890289 28.7848936319 -1.7442928215
-25.6051269667 28.6604387311 -1.9718138974
-25.5941307913 28.6320813800 -1.7745561277
-25.7563681199 28.4151123836 -1.9107181616
-25.7651671953 28.3888086443 -1.8791457555
-25.7095109088 28.4510894768 -1.7659976684
-25.9636275011 27.8791985021 -3.1140936462
-25.9014564585 27.9297628598 -3.3653432994
-25.7820931040 27.9816444471 -3.7239405968
-25.3384569191 28.3188562318 -0.9219281770
-24.7343560050 28.7918220192 -0.9182179830
-25.0083046888 28.8221608658 -1.0704920734
-25.3708678632 28.7581472715 -1.4724268265
-25.3683032553 28.6171840941 -1.2526576569
-25.3808280038 28.6605189717 -1.3305197290
-25.1699507659 28.7545382352 -1.1625131059
-25.2647958997 28.5423216019 -1.0212527972
-25.2621728344 28.6511653442 -1.1433774720
-24.1965666416 29.3035595511 -1.2208230946
-24.7026417925 29.3291808487 -1.7595409995
-24.7146205765 29.2037032465 -1.4602341545
-24.5645481693 29.2576765232 -1.4232087434
-24.6578533210 28.8599649962 -0.9676327278
-24.7081345787 29.0199246012 -1.1420855165
-24.5849996150 28.9996186816 -1.0753670601
-24.5732383646 29.1821743694 -1.2946277771
-24.4803923584 29.2334948509 -1.3063838458
-25.1681208330 29.0543742367 -1.7741721427
-25.2775373605 29.0104046607 -2.0237669260
-24.8912346345 29.2844013035 -2.0049982618
-25.0351477323 29.1591889701 -1.8285954949
-24.9570293092 29.2266099065 -1.9101085778
-25.0900232456 29.1543385565 -2.0357907616
-25.2346148811 29.0466015691 -2.0385609399
-24.8386092700 28.9995084645 -1.1974736124
-24.9564191622 28.9463139903 -1.2111888202
-24.8240804462 28.9785796327 -1.1511889132
-24.9687268305 29.1562136587 -1.6715001757
-24.8292003129 29.1831765485 -1.5442056202
-25.3532725016 28.8294611515 -1.5821372590
-25.2542063057 28.8367339575 -1.4139851527
-25.1879453562 28.9993825261 -1.6504660261
-24.8892193737 29.1111717908 -1.4601744843
-24.9805743125 29.0990859734 -1.5485020735
-25.0602283500 28.9286779718 -1.2973129769
-22.4961822529 29.7770301701 -1.7361027807
-23.1513288081 29.9785404580 -2.0101292648
-22.7838457610 29.9355852477 -1.8278983915
-23.0402687138 29.6609348824 -1.4931212000
-23.0741158601 29.6899642175 -1.5218169029
-22.9937308304 29.8574581736 -1.7324308281
-23.7410955812 29.8248207324 -2.1222970706
-23.4982004092 29.9783294627 -2.4270264781
-23.5048572717 29.8967841039 -2.0842380052
-23.6620907869 29.4708747217 -1.2272508652
-23.7495452619 29.4334016332 -1.1932833777
-23.2213802777 29.5480060029 -1.3579459854
-23.2958406436 29.5639466519 -1.3660247927
-23.8186253896 29.6917930709 -1.7154749092
-23.6158848497 29.6674574628 -1.5306855749
-23.8169586268 29.6437744546 -1.5696894215
-23.6445517020 29.6314617545 -1.4620416658
-23.6664178429 29.5915056100 -1.3899535455
-23.4548712351 29.8575202391 -1.9165811020
-23.3656521055 29.8782965565 -1.9066033260
-23.6449267387 29.7086096572 -1.6464339638
-23.7127695930 29.7718334641 -1.8861997933
-23.2249701256 29.7537243719 -1.6104770048
-23.1824981089 29.6928169119 -1.5261794182
-23.4967426945 29.8194400943 -1.8476627674
-23.3233197989 29.7536921347 -1.6228899551
-24.7249150195 29.3872545132 -2.0320586957
-24.9875524198 29.2397945454 -2.2501916278
-24.0204924158 29.3406386304 -1.1630021467
-24.2666360563 29.3436340104 -1.3176928185
-23.9600900092 29.7056525661 -1.9200261451
-24.1636628791 29.5951169668 -1.7796076467
-24.0881448342 29.6334872554 -1.8127306269
-24.6080569337 29.3665580462 -1.7301382730
-24.4489954806 29.4508268582 -1.7449666210
-24.5082960944 29.4063289551 -1.7059110592
-24.2145581355 29.5237594171 -1.6334110569
-24.1725358519 29.5314288815 -1.6060192330
-24.3761894874 29.6131313565 -2.5389439880
-24.7166995310 29.3862556183 -2.0028333800
-24.6677062297 29.4359155176 -2.1345252931
-24.0188719325 29.6865054669 -1.9236429997
-24.3182998605 29.6016459574 -2.0916446555
-24.4725002680 29.5636549654 -2.4785243632
-24.3834072775 29.5541669540 -1.9900746249
-24.3918819024 29.5980543498 -2.3381466157
-24.4353364432 29.5682663851 -2.2272363010
-22.4461069027 29.9254261750 -1.8063718751
-22.6106002615 30.1176077169 -2.1036822935
-23.0210216184 30.0082109553 -2.0130377857
-22.9196377897 30.0821527248 -2.1542186831
-22.5211844919 30.0012055529 -1.8863893730
-22.6347770702 30.0557571943 -1.9997231722
-22.5363811861 30.2188587075 -2.3166068827
-22.4572918842 30.3162872516 -2.5457141160
-23.2304995899 30.0957646051 -2.5364739118
-23.2260322133 30.1101080400 -2.6417610833
-23.2095827868 30.1069556366 -2.5716196006
-22.6516653605 30.1454615517 -2.1909332364
-23.1003007246 30.1529626844 -2.6848354250
-22.9513548337 30.0772889961 -2.1570283577
-23.0896262260 30.0797545769 -2.2589630653
-22.8815637616 30.1272957933 -2.2696847120
-20.8424610112 31.0068869069 -2.3642081954
-21.0574409979 30.9772836385 -2.4592211670
-20.9454480892 31.0063941512 -2.5299071137
-21.2338987790 30.9501410442 -2.9955861043
-21.1692174513 30.9506047195 -2.4531259295
-21.3584774708 30.9201074182 -2.7802713466
-21.1453141173 30.9755712441 -2.7888478516
-21.2722240180 30.9436571926 -2.8435357819
-21.1288660504 30.9767296022 -2.6911218345
-21.6037378486 30.8337999855 -3.0151736939
-22.3505155096 29.7839224043 -1.7462830999
-22.2517658819 29.9361163329 -1.6961250511
-21.9582232803 30.1186387429 -1.4067927143
-21.9219150213 30.1047365176 -1.3481223095
-22.2427247007 30.1221138764 -1.8038771471
-22.2708510845 30.1270280525 -1.8436563071
-22.1144830449 30.0930733457 -1.6082552992
-22.1529800818 30.0551948472 -1.6345405829
-21.1310763074 30.3554454480 -0.9115744211
-21.0447993314 30.2129524448 -0.6974732391
-21.4736748097 30.4378386444 -1.2582612093
-21.4002057236 30.4617031107 -1.2404993962
-21.5255203092 30.5338388455 -1.4308051714
-21.6127431086 30.2416518704 -1.1451904271
-21.2899631810 30.3790056445 -1.0533049242
-21.2576737586 30.2307188061 -0.8610415830
-21.3628502696 30.2588953208 -0.9592338758
-22.0525529397 30.4444838981 -2.0161676026
-22.1957054802 30.3802126303 -2.2002861116
-21.9880378613 30.5703198335 -2.2601414521
-21.8273242921 30.6191188578 -2.0297594372
-22.0220154466 30.4687710609 -2.0070969220
-21.7317635415 30.1171778033 -1.1505111994
-21.7332708308 30.2918436251 -1.3079230897
-21.7026341789 30.1837777894 -1.1709501393
-21.6702964900 30.5546264591 -1.5980290648
-21.6720030965 30.3922272878 -1.3631640168
-21.7611264736 30.5278680901 -1.6669858101
-22.1026192192 30.2664231304 -1.7721725237
-22.1601836229 30.3263766067 -1.9773803460
-21.9845145130 30.4637138004 -1.9101460110
-21.9846594706 30.3465369370 -1.6944021265
-19.1489366993 30.7928613325 -0.3203164453
-19.6521769190 30.9891859361 -1.0295314146
-19.7016566639 30.7914948640 -0.5760902075
-19.2564130541 30.8600605134 -0.4623275873
-19.3869026170 30.8964670014 -0.5938227109
-19.5345557034 30.9124078499 -0.7143284593
-19.3717877716 30.4657276313 -0.0323771074
-19.7020624098 30.6013501265 -0.3079761850
-19.5841088765 30.5703813633 -0.2154450031
-19.2393788970 30.7775244251 -0.3166936868
-19.5207807807 30.8099543818 -0.4903180546
-19.3405184573 30.6811997795 -0.2207684816
-20.6221875346 30.7856423494 -1.4447424926
-20.5223633219 30.8837698492 -1.6649132694
-20.2967972659 30.9542205604 -1.7320620917
-19.9263800141 30.3997401242 -0.2594009108
-20.1985746355 30.5725635807 -0.5803519154
-20.4621025350 30.5838555732 -0.7879798684
-20.5705248630 30.5405212911 -0.7872078550
-19.7760359769 30.9728176570 -1.1028609698
-19.8091352109 30.8039539542 -0.6862824442
-19.9648052182 30.9098025019 -1.1088970149
-20.4961567457 30.7344949774 -1.1928787364
-20.3543160901 30.7153542502 -0.9933658697
-19.8164455241 30.7513753130 -0.5905433355
-20.2285795828 30.6477025993 -0.7301695664
-20.0071578128 30.6352732451 -0.5447585489
-20.1815479288 30.7520563808 -0.9115819889
-19.9616104252 30.7203637757 -0.6511539638
-20.0360811116 30.7814042060 -0.8390372130
-21.7565786120 30.7140951991 -2.2373102631
-21.7760536491 30.6919081094 -2.1892853027
-21.8581887760 30.7171630103 -2.6144586390
-21.7512686015 30.7717061991 -2.6020657089
-21.8916158660 30.6593032177 -2.3546939461
-21.8697892543 30.7016069826 -2.5309296116
-20.8040358632 30.4745324905 -0.8532202560
-20.8256537725 30.3690725737 -0.7055592778
-20.8426584387 30.7226808081 -1.4127182919
-21.0093204283 30.6794851533 -1.3993755326
-20.8349501681 30.6859749067 -1.3253734010
-21.4952075780 30.6679617447 -1.6767894480
-21.1861843302 30.6761500792 -1.4806137964
-21.3827810225 30.6476772847 -1.5316339698
-20.8899629425 30.5505987631 -1.0756210268
-21.0695647122 30.4728757898 -1.0527776989
-21.0047527459 30.5202820007 -1.0934574002
-21.0830114046 30.9625056509 -2.3732257163
-20.6898067158 30.9470763008 -1.9575418832
-21.3516506894 30.8916324697 -2.3553863756
-21.1149606815 30.9537357499 -2.3654544852
-21.2341996577 30.9110333255 -2.2721929642
-20.9067622756 30.8481904544 -1.7576070159
-21.0657583196 30.8823829525 -1.9657281848
-20.9251303994 30.9248449938 -2.0140141734
-21.2945440883 30.7452065802 -1.7117056502
-21.4087616281 30.7253839141 -1.7515882611
-20.9136338128 30.7303887167 -1.4639179527
-21.1028086122 30.7123565968 -1.5146981782
-20.9659340043 30.7839026164 -1.6182234306
-21.4548600518 30.8285188329 -2.1719126773
-21.4666274229 30.8489608116 -2.3023082879
-21.2272101769 30.7616975665 -1.7114995558
-21.3762557871 30.8228642885 -2.0371270076
-20.6297844667 31.0244442621 -2.2871187731
-20.6690892280 31.0596430024 -2.6867475127
-20.7194200412 31.0499802795 -2.6240588753
-21.0721516009 30.9866578293 -3.0413467767
-20.9208028730 31.0203622212 -2.9556963596
-19.0313703846 30.8026840095 -0.3197761942
-18.7670093724 31.0284758224 -0.8561416564
-19.0853864886 31.0950599238 -1.0698813604
-18.8125699644 30.9617274205 -0.6534555114
-18.8359237656 31.0224880694 -0.8207279674
-19.5543795227 31.0180926557 -1.0436652851
-19.3038659786 30.9534531398 -0.6945327528
-19.3374331945 31.0634815947 -1.0505580038
-19.3550813116 31.0111159465 -0.8795954530
-18.8662248166 30.8892947941 -0.4813934802
-19.1072090246 31.0257077765 -0.8314810717
-19.0398411847 30.9838456875 -0.7029843282
-18.8853776922 31.1526129778 -2.1585843819
-18.8886327913 31.1563418305 -1.9062409283
-18.9270085723 31.1596050887 -2.0559287743
-18.7724672947 31.1373107441 -1.6276619247
-19.0810439399 31.1625070658 -1.5218013614
-18.9893583216 31.1536528005 -1.4343138166
-19.1987836862 31.1784276696 -2.1349057997
-19.1702757313 31.1774842060 -1.9635226632
-18.9219115965 31.1284784414 -1.2505116593
-18.9992502034 31.1498430549 -1.3799227925
-19.2179346226 31.1340225952 -1.3198511086
-19.0981564754 31.1368216904 -1.2855013504
-19.3811137533 31.1049595170 -1.2724949056
-19.5159210355 31.0763680287 -1.2569872032
-19.2840053935 31.1641807382 -1.6533706609
-19.5183767441 31.1207265766 -1.5229785946
-19.4585135739 31.1185135117 -1.4343447555
-19.3343102802 31.1429896156 -1.4810724815
-18.9456712664 31.1562421443 -2.3794294222
-18.3732715761 31.0265986255 -2.1362156476
-17.5751866071 30.6430288506 -2.1014679456
-18.6838431330 31.0012744627 -0.7992205970
-18.6180894876 30.8948004482 -0.5325486429
-18.3919952056 30.7767315989 -0.3753828577
-18.5675900073 30.8817332373 -0.5174074283
-18.5042271547 30.6825166370 -0.1799798341
-17.1217318584 29.4799607701 -0.3503387667
-17.7504410472 30.6543307928 -0.8390343258
-17.5587010349 30.4149004955 -0.4983825307
-17.4865551091 30.3647701575 -0.5180064829
-17.5706137608 30.5045188953 -0.7105613450
-17.6683419814 30.4305544770 -0.3558801403
-18.6719074370 31.1146730969 -1.9592937073
-18.4894772860 31.0677381348 -1.7592369990
-18.5994755129 31.0982097981 -1.8539959803
-18.6363860536 31.0611692581 -1.0635025234
-18.6744412470 31.1137165136 -1.4854966562
-18.5271414065 31.0555428739 -1.1925026308
-18.0628053203 30.8666049372 -1.1026417938
-18.1304040468 30.9100345897 -1.2301750965
-18.1815631208 30.9004210727 -0.9506256130
-18.6747179033 31.1155602910 -1.5540462222
-18.4662205608 31.0407375123 -1.2189465246
-18.3415754496 31.0091994552 -1.3779095045
-17.7338078101 30.4387548978 -0.2913207795
-17.8219544961 30.6956407471 -0.8303968704
-18.0660593644 30.7922620233 -0.6919904905
-17.8946314062 30.6556949013 -0.5350180750
-17.8870723700 30.7109667358 -0.7326684516
-18.6006056386 31.0321139189 -0.9537330822
-18.3043607400 30.9378512412 -0.8933746288
-18.3203524479 30.8684838377 -0.6239901244
-17.9338157710 30.6586876483 -0.4873219997
-18.1392110539 30.8378651117 -0.7361136843
-18.1863275701 30.7819037556 -0.5188621048
-18.1109483266 30.7433105443 -0.4916879525
-16.3515368026 29.1113395693 -1.4205310320
-16.3830405818 29.0776693686 -1.3144107466
-16.4007436974 28.8427508192 -1.0630540471
-16.9408265007 30.0295346298 -1.3417544851
-16.6575207332 29.6871867866 -1.5387363434
-16.9100805536 30.0459976910 -1.6505335309
-16.9376656943 30.0634198672 -1.5591009967
-16.4188846391 29.3648061651 -1.6340439632
-16.6176115032 29.6228186426 -1.5197769906
-16.5668674014 29.6244986442 -1.7318061678
-16.8181822010 29.9816916586 -1.9202176095
-16.6214787735 29.6690717116 -1.6327490404
-16.7810913747 29.9133227612 -1.7696584409
-17.0858176538 29.3619168981 -0.3757519250
-16.6626856543 29.1453138769 -0.8082507624
-16.8915352008 29.9284272959 -1.1902826632
-16.7180949704 29.5727129470 -1.0332971775
-16.7060094906 29.2897665918 -0.8148283248
-16.7901747266 29.4642820834 -0.7570293914
-16.5425299740 29.4155095370 -1.3539521876
-16.4573200724 29.1224943119 -1.1911182422
-16.8172974022 29.8440272085 -1.2588539763
-16.6364399386 29.5122060529 -1.2024209244
-16.6557030972 29.5867667035 -1.2789770911
-16.6985973971 29.6662798255 -1.2777125226
-16.5732377030 29.2173686280 -1.0168378194
-16.5498888492 29.4032995547 -1.3075025231
-16.4848515661 29.1173665257 -1.1236868593
-16.5506135918 29.3352346971 -1.2051185566
-18.6290290014 31.1030793453 -2.0656242919
-18.5002838653 31.0700401812 -1.9048886733
-17.8471682626 30.7605782565 -1.1759888732
-18.0815461987 30.9000951000 -1.4438375750
-17.9701588752 30.8355960012 -1.2823314763
-17.0039796409 30.0929481722 -1.2802168395
-17.1329691016 30.1733613985 -0.9803996357
-17.0119180756 30.0091618256 -0.9244047790
-16.9873961282 30.0197527885 -1.0579175975
-17.6563749407 30.5949374055 -0.8377282877
-17.3146389733 30.2792463331 -0.6877172839
-17.4048709573 30.4349403160 -0.9734528188
-17.0399354315 30.0310683102 -0.8843622354
-17.2486379705 30.2817061827 -0.9215919717
-16.9725522504 30.0743207627 -1.3735353628
-17.2227385552 30.3505549287 -1.5257332505
-17.1772180712 30.3192655754 -1.6364025465
-17.8064094378 30.7288551717 -1.1034978915
-17.5171680208 30.5462433649 -1.1174854665
-17.6657205569 30.6375126004 -1.0555232730
-17.0517905785 30.1470333052 -1.2681440585
-17.3499299660 30.4488396379 -1.4119939786
-17.3401917580 30.4247406621 -1.2558339499
-17.1760901314 30.2805348599 -1.2884510177
-17.4647462458 30.5221552676 -1.2432975106
-17.7746750371 30.7386538062 -1.4200884638
-17.5961750672 30.6331017044 -1.4813679220
-16.3477768152 28.7383549786 -1.0763977107
-16.1808387050 28.6022674244 -1.2330676967
-16.2850087571 29.0282393912 -1.4606724501
-16.2313802678 28.8614936451 -1.3847383336
-16.1722732290 28.8299256889 -1.4627378926
-16.2711426120 28.7121808761 -1.1805913503
-16.0088129168 28.7329343720 -1.7232130391
-16.3134371217 29.3767601536 -2.0234198297
-16.4825517050 29.5658043572 -1.8972527463
-16.4006067379 29.4227827714 -1.8143333055
-16.3321354104 29.4233538316 -2.0827983731
-16.3917490232 29.5526390146 -2.2854904378
-16.1297598555 28.9084051000 -1.6581858212
-16.2202347899 29.2547250886 -2.0599009515
-16.1424322912 29.2121030967 -2.2692933293
-16.2167401079 29.0737288434 -1.6896345428
-16.2494196288 29.2461690934 -1.9270040926
-16.1782111050 29.1225157137 -1.9021011046
-14.5321870514 25.4666228426 -3.9691236468
-14.5679060365 25.7069178544 -4.0648344308
-14.6316029984 25.9535103362 -4.2811851830
-14.6156200773 25.9576482046 -4.0078224725
-14.6011187014 25.8367301385 -4.2298080990
-14.6192185298 25.9320595902 -4.1745224711
-15.4414524965 22.9506108711 -3.8713512365
-15.2506334578 23.0428628436 -4.2506883821
-15.3886264113 23.0068280602 -3.8533433708
-15.2487527043 23.0793893992 -4.0976192704
-14.8066145846 23.8772094828 -5.0896179514
-14.8213549431 23.7557836699 -4.8858618492
-14.7853821151 23.8111714650 -4.7597243968
-14.9065289605 23.5048600053 -4.5108453145
-14.8504029282 23.6290134184 -4.6296059413
-14.8036845748 23.8421768709 -3.9625376070
-14.8605520335 23.7110797200 -4.0087237603
-15.0410125381 23.4264162820 -3.8840753442
-14.7900208539 23.8115829279 -4.2536350379
-14.8986744526 23.6273514815 -4.0386960333
-15.0537870745 23.2589998366 -4.4607280318
-15.0805425683 23.2366365201 -4.3221541211
-14.9120277047 23.5059254923 -4.3977497736
-15.1334565311 23.2280561469 -4.0562325380
-14.9719277121 23.4012694724 -4.3818411184
-14.6370625518 25.3659993564 -5.1306485302
-14.6636518091 25.3489069063 -5.2470984607
-14.6108866598 24.8965839445 -5.1660324723
-14.6749930789 25.0295161463 -5.4218958030
-14.7505029601 24.0851839202 -5.1914347827
-14.7599725374 24.1160635140 -5.2885811560
-14.6489703945 24.6373955129 -5.2894990145
-14.6837291224 24.6389698881 -5.4326388624
-14.6399233574 24.6412869778 -5.2476360044
-14.6587130037 24.8103869109 -5.3693215074
-14.5209151738 25.2947441842 -4.0788919710
-14.5252681057 24.9035392979 -4.0938326504
-14.5269460912 25.2318527577 -4.3796467664
-14.5194624035 25.2035572697 -4.2412428330
-14.5199508208 25.2512178248 -4.1354130401
-14.6975549975 24.0911307743 -4.1009780205
-14.5778364765 24.4929350245 -4.3856127775
-14.5871874181 24.4567779334 -4.2740773413
-14.5862185670 24.4977268856 -4.0852164470
-14.6056126320 24.4036424635 -4.1060008568
-14.6087227805 25.2851679794 -5.0389137196
-14.5744795494 25.2319505653 -4.8721125084
-14.5579585329 25.2718137066 -4.7102502342
-14.5416518426 24.9383655141 -4.6767186448
-14.5744685341 25.3319434061 -4.7949935935
-14.5437971634 25.0196223865 -4.7070100430
-14.5438838241 24.7183332612 -4.1590763115
-14.5574039593 24.6046386610 -4.4243848889
-14.5376649853 24.7509068085 -4.3603009582
-14.5209325130 24.9889641345 -4.3639212399
-14.5319149473 24.8214657894 -4.3781391330
-14.7519286542 24.0297912915 -5.0978507968
-14.7395661427 24.0433738918 -5.0544406355
-14.6541811378 24.4010322500 -5.1278614185
-14.7588508386 23.8869868208 -4.7812623758
-14.7100026596 24.1191193311 -5.0240608677
-14.7087866289 24.0845854002 -4.9424799312
-14.6114123478 25.1849165501 -5.1167696062
-14.5650507995 24.6524909134 -4.7101415741
-14.6063346274 24.7286087522 -5.1077094762
-14.5968227992 24.6903531023 -5.0274625197
-14.5895659184 24.9658731269 -5.0524352468
-14.7624596883 23.9066105989 -4.1245127996
-14.7529192703 23.8796237957 -4.4649248702
-14.7171519662 23.9821939908 -4.4318140758
-14.6220987220 24.2952508900 -4.4508331362
-14.6610452939 24.1546433122 -4.4254666356
-14.6125807525 24.5807615667 -5.0519887623
-14.6064412313 24.4646235195 -4.8628571190
-14.5717624055 24.5973444109 -4.7249690161
-14.6597077017 24.1750713753 -4.7032518268
-14.5949128736 24.4733727163 -4.7460171785
-14.6067332812 24.3962609756 -4.7174857471
-14.5608646332 25.6277327038 -4.2044665802
-14.6003184039 25.7022426847 -4.5315859021
-14.6639591068 26.0056669198 -4.4723668496
-14.6495930304 25.9567058019 -4.4569823521
-14.5659883987 25.6366243247 -4.2634597707
-14.7066539027 25.7160103906 -5.1126346368
-14.7866367959 25.9826461675 -5.1205326528
-14.7587386387 25.9221858765 -5.0848797741
-14.6224718750 25.6421531121 -4.7776101427
-14.6751137543 25.7639200461 -4.9196972041
-14.8646351384 26.2364268151 -5.0876943677
-14.8143967685 26.1731839485 -4.9941452976
-14.9405986454 26.4949855628 -5.0472724120
-14.6425284903 25.7703892536 -4.7344541354
-14.8178548394 26.1326176628 -5.0538365263
-14.7722114829 26.0705285011 -4.9584719049
-14.7308058925 26.1052959046 -4.7218487839
-14.7351681474 26.0762644155 -4.7862468841
-14.6785079113 25.4398800187 -5.2450023667
-14.7498747676 25.5721009533 -5.3888077327
-14.9506846757 26.4007787974 -5.1724581895
-14.7971826289 25.7639404474 -5.3732118568
-14.8500476929 26.1027305345 -5.1907691231
-14.8155962670 26.0096544793 -5.1812874877
-14.7492480675 25.7931970045 -5.1922630876
-15.5300761426 22.8188728377 -4.0711834882
-15.3860251758 22.8949357742 -4.3453378742
-15.2677690965 23.0258450120 -4.2474935106
-15.5793090609 22.7802029960 -4.0596410379
-15.5017845755 22.8135280338 -4.9232143546
-15.1909439654 23.1659279075 -5.0563960006
-15.4423224104 22.8350655137 -4.5227914709
-15.3316558663 22.9940532976 -5.0094399675
-15.3791767045 22.9046747108 -4.7786007910
-14.8695485602 23.7287587880 -5.0844039255
-14.9854957365 23.3733094502 -4.7010960038
-15.0058184853 23.4557915818 -5.0898832817
-14.9301081968 23.5196962781 -4.8927678682
-15.4886300177 22.7990241257 -4.3885317898
-15.3744991163 22.8939020128 -4.5638782124
-15.1843315343 23.1102197669 -4.8034549314
-15.1192726323 23.1734314176 -4.6632893286
-15.2677851714 22.9970662909 -4.5576173649
-15.3905744391 23.0244317935 -5.3608810937
-14.8079898810 24.0456436869 -5.3744945479
-15.3965746088 22.9754798985 -5.2131600536
-15.2628545080 23.1029319964 -5.1256294577
-15.2842909953 23.1567413375 -5.3735714050
-14.8124235039 23.9040090948 -5.1696981688
-14.8558987151 23.7970058206 -5.1582666104
-14.9678967023 23.5587907076 -5.1591107612
-14.9645055924 23.7075692902 -5.4030581805
-15.1284894993 23.3612323190 -5.3152218583
-15.6588500328 22.7590003053 -3.8526729666
-15.8349974543 22.6017001991 -3.9337348448
-15.6175085189 22.7459819233 -4.0746505748
-15.7057796170 22.6968122015 -3.9607166990
-16.2383136172 22.3717233610 -3.7251392816
-16.2181434789 22.4082912449 -3.6221075046
-16.1272090330 22.4290485617 -3.7915097702
-15.5512548074 22.7609150745 -4.8182519553
-15.8563076674 22.5327615905 -4.3250501911
-15.7164387056 22.6258653467 -4.4415851135
-15.9164359293 22.5394434164 -3.9561949618
-15.8854743622 22.5282425353 -4.1680185359
-15.7276224493 22.6367963670 -4.2228201321
-16.8212907088 22.0283266440 -3.6944590366
-16.6768643821 22.0702619632 -3.8788463048
-16.8143930390 22.0625602998 -3.5744284342
-16.3509104881 22.2166495548 -4.2227034907
-16.4446610439 22.1498170929 -4.2866802033
-16.4829339375 22.2394748622 -3.6352893533
-16.2778485209 22.2744106360 -4.1280699519
-16.4359277036 22.2357315877 -3.7765640452
-16.4638879454 22.1956456092 -3.8802823683
-16.4662192971 22.1698517784 -4.0173222735
-15.6609262392 22.6858223161 -4.9869301144
-15.7225261103 22.6467485552 -5.0414975147
-15.6537911428 22.7152170842 -5.1342086099
-16.1445965495 22.3472250561 -4.2195167310
-16.0555794464 22.4158544575 -4.1501775056
-16.0899764602 22.3731563392 -4.8625869673
-15.9759574119 22.4409787700 -4.7395452243
-16.1553752099 22.3221388832 -4.5687728680
-15.6666914039 22.6665859619 -4.8286183790
-15.8461018655 22.5339697407 -4.8209070982
-15.8133581770 22.5517142064 -4.6770383600
-16.1417469359 22.3376901454 -4.3560338362
-16.0221585298 22.4238579534 -4.2824902058
-16.0228620340 22.4111037390 -4.4614710770
-17.6432731212 21.5857685512 -4.1626887434
-17.5825093891 21.6025314066 -4.2435739918
-17.7257726753 21.6696942908 -3.6488581077
-17.6984251787 21.6417478673 -3.7658313689
-17.7638881503 21.5982611137 -3.8493780058
-16.8336855290 21.9288766024 -4.7425149140
-16.9362336917 21.9009568575 -4.9198901895
-16.8745942892 21.9207641648 -4.8614931579
-17.2042161374 21.8920583994 -3.5239843834
-17.1101392451 21.8881705665 -3.6891998772
-17.2697665698 21.7742531346 -3.8965210319
-17.4236620855 21.7943674813 -3.5674031267
-16.9483989740 21.8684298999 -4.3606975727
-17.1622267517 21.8019400695 -4.0165570600
-16.9787702705 21.8569661051 -4.3022162724
-17.1574235337 21.8239771421 -3.8954130583
-17.2277926755 21.8264767276 -3.7319784396
-17.3743737482 21.6852588022 -4.2660190357
-17.1812387674 21.7869914798 -4.0689809721
-17.1040652237 21.7953984024 -4.4916655421
-17.6140410300 21.6885299324 -3.7045441005
-17.2891011813 21.7493867203 -3.9902726052
-17.4618595126 21.7184648406 -3.7941656171
-17.3910511963 21.6812617512 -4.2154958847
-17.2587805662 21.7326987086 -4.2914976454
-16.9032421044 21.9503237384 -3.8654529563
-16.8209107567 21.9805478282 -3.9307791709
-16.7164160534 21.9818188022 -4.6596796489
-16.7774335849 21.9530303024 -4.3469065569
-16.7038142392 21.9855212120 -4.5196675524
-16.4388407034 22.1441454440 -4.4058311567
-16.3696502963 22.1823491706 -4.5492060127
-16.7194502875 21.9983492733 -4.1805398840
-16.5931131028 22.0707228973 -4.1905308564
-16.6137925090 22.0437037957 -4.3446127377
-16.3565086725 22.2143951399 -4.9854969198
-16.6687484495 22.0180380924 -4.8212377771
-16.4463414453 22.1658271723 -5.0177009142
-17.9545377105 21.4823877954 -4.1307560458
-18.1893643370 21.4461280677 -3.9233587229
-17.8058787314 21.5190901024 -4.3766183957
-17.8985599643 21.4958619752 -4.1721573436
-18.0035478648 21.4575117995 -4.3367616073
-18.2909819593 21.3940925318 -4.5090774006
-23.7913934680 20.6925122358 -4.9817353993
-23.6297942211 20.6626635429 -5.0709177401
-23.7861093345 20.6934010314 -4.8346872307
-23.0656512582 20.6689956621 -5.3903420265
-23.3281884757 20.6809931398 -5.4267508474
-23.3389786648 20.6112777218 -4.8308091052
-23.0916074598 20.6386898395 -5.2367167016
-23.1530235815 20.6112605729 -5.0420797915
-23.2694526336 20.6327717584 -5.1559840757
-23.4972275317 20.6382024016 -4.9753186742
-23.0104153684 20.5802476591 -4.8318352618
-22.9361933883 20.5748257652 -4.8486472573
-22.7587660036 20.5630675884 -4.8805521114
-22.6119690545 20.6048925206 -5.1550471643
-23.1371460846 20.6069260296 -5.0138626076
-22.7458318124 20.6271591251 -5.2345721215
-22.9182186465 20.6171339641 -5.1678562968
-23.7308795391 20.6964740815 -5.2847322455
-23.8567379795 20.7121538405 -5.1074191327
-23.7596848359 20.7801528488 -5.7217626216
-23.8362955119 20.7357523596 -5.4209887540
-23.6424561045 20.7572548413 -5.7068557342
-23.3841020074 20.7023265469 -5.5282432415
-23.4025933933 20.7222623250 -5.6302361901
-23.7894321259 20.7208456011 -5.3916121458
-23.4643725094 20.7282133224 -5.6456681702
-23.5121286333 20.7147915608 -5.5679793063
-23.6404620160 20.8850589667 -6.0706860849
-23.4401995758 20.8061105765 -5.9465508980
-23.3925923119 20.8574247634 -6.0862488981
-23.2882017237 20.8253281641 -6.0262455528
-24.0622253210 20.7926548159 -4.7707342483
-23.9773536556 20.7517231099 -5.1475759232
-24.3307985989 20.9079850467 -5.0642381769
-24.4024774294 20.9653121939 -4.8114146992
-23.9720103261 20.7651492261 -5.3436035954
-23.8803579607 20.7713734068 -5.5542720914
-24.2239614529 20.8577588257 -4.8958695651
-24.0024937013 20.7656651077 -5.2291678715
-24.8493195289 21.2395950802 -5.2150200785
-24.5127496028 21.0497770135 -5.6669545182
-24.6652651215 21.1204762234 -5.5240960577
-24.5191942386 21.0174195944 -5.1893478453
-24.7520949826 21.1675575952 -5.2981564678
-24.7626639130 21.1919066819 -4.9068091051
-23.7496226096 20.8274860156 -5.8859667448
-23.9880894460 20.8890147151 -5.8945485242
-24.2075675333 21.0355025538 -6.0642505240
-24.1614644011 21.0347144532 -6.0981586439
-24.0004383652 20.9607823774 -6.0661723817
-24.4501987000 20.9772086452 -5.1912108330
-24.4059298234 20.9520452249 -5.1772813462
-24.2399885564 20.9494162422 -5.7984591464
-24.3516119715 20.9585617188 -5.6325355300
-24.1934377092 20.8537395097 -5.3499381869
-23.9986069712 20.8161868128 -5.6117591894
-24.3962737480 20.9537788903 -5.3832363809
-24.1971540420 20.8711676866 -5.4991704796
-25.4178472545 21.9827255081 -5.8873686360
-25.5088082721 22.0617094439 -5.7506510628
-25.4435850587 21.8763058496 -5.4490463487
-25.4903181246 21.9524301790 -5.4929233043
-24.9653404074 21.5657597397 -6.1064448083
-25.1001320363 21.8687933350 -6.3222857352
-25.0669162898 21.8576624311 -6.3521790886
-24.9924777342 21.6846634241 -6.2365901069
-24.9964328018 21.4667748233 -5.8532372447
-25.1488118480 21.5300979081 -5.5117420370
-25.1107050557 21.4697255333 -5.2596198004
-25.2659867731 21.8848070107 -6.0779608061
-25.1978890425 21.7574435947 -6.0061588631
-25.3338144312 21.8396026521 -5.8394752227
-25.1328871896 21.5534230489 -5.6991385863
-25.0903336069 21.5802106803 -5.8957671951
-25.4189219799 21.8240112903 -5.3069068461
-25.2022756550 21.6855939225 -5.8540062387
-25.3670400009 21.7884293273 -5.5413501020
-24.2245191690 21.0749247756 -6.1265846787
-24.8973971206 21.2819566313 -5.4100998784
-24.9896311464 21.3564162676 -5.2026736679
-24.6759931448 21.2276741149 -5.9176642203
-24.9561472838 21.3581871451 -5.6121525013
-24.4956549597 21.0991457268 -5.8696468825
-24.5270795288 21.1367109600 -5.9243199255
-24.8784341933 21.2846499403 -5.5745819957
-24.8073299016 21.2107691503 -5.3993131851
-24.8240737183 21.2497921494 -5.6174814148
-24.2898182970 21.1198058381 -6.1539389722
-24.3264486699 21.1614672730 -6.1994316381
-24.7299689390 21.2953838302 -5.9917227158
-24.6190232885 21.2171750520 -5.9876982540
-25.7909615642 22.5017254970 -5.4046291376
-25.5753632983 22.5461122259 -6.1780682397
-25.5516028392 22.3140499973 -6.0191949147
-25.7149921607 22.5244694094 -5.8075072045
-25.3162040599 21.9728326440 -6.1092410404
-25.5547013721 22.1474891748 -5.7631380889
-25.3896014058 22.0708879361 -6.0904649789
-25.5088087481 22.2390580458 -6.0368556431
-25.5481542781 22.1811662429 -5.8493997250
-25.5271096695 22.6432776265 -6.3352318667
-25.1395099318 21.9174081698 -6.3300963322
-25.4509301137 22.2541987301 -6.1792178938
-25.2455926946 22.0077777638 -6.2815012605
-25.2444877173 22.1373494985 -6.4201623617
-25.6612328528 22.6517814229 -6.0771868790
-25.7689709337 22.5796590586 -5.6797314454
-25.8014873054 22.8227965587 -5.8468566737
-25.7854209867 22.7888401741 -5.8660013590
-25.8603767497 22.7644772885 -5.5475946542
-25.9043197650 22.8413451757 -5.4325864027
-25.8433209700 23.7648913422 -6.0860452256
-25.9402553459 23.7334766226 -5.8336150656
-25.6006226192 22.7317350209 -6.2550483370
-25.5960020215 22.8407591121 -6.3291039394
-25.7520233899 23.6836251171 -6.2882424210
-25.7123577217 23.2074651555 -6.2861806762
-25.6276652999 23.4557166902 -6.5245594524
-25.7159156114 23.1255071246 -6.2477052103
